ply
format ascii 1.0
element vertex 1651
property float x
property float y
property float z
end_header
-0.080145 -0.053101 0.631905
-0.079808 -0.052856 0.630546
-0.079633 -0.052851 0.630675
-0.079522 -0.052944 0.631409
-0.079413 -0.053128 0.632297
-0.078972 -0.052916 0.630265
-0.078786 -0.052953 0.630391
-0.078690 -0.053055 0.631240
-0.078498 -0.053038 0.631243
-0.078103 -0.052807 0.629475
-0.077762 -0.052669 0.628231
-0.077624 -0.052836 0.628900
-0.077480 -0.052796 0.629188
-0.077141 -0.052759 0.628113
-0.076842 -0.052663 0.627221
-0.076769 -0.052734 0.628190
-0.076377 -0.052640 0.626643
-0.076203 -0.052589 0.626695
-0.075946 -0.052569 0.626219
-0.075948 -0.052645 0.627734
-0.075573 -0.052414 0.626055
-0.075280 -0.052400 0.625324
-0.075110 -0.052535 0.625719
-0.074944 -0.052531 0.625911
-0.074825 -0.052494 0.626382
-0.074525 -0.052579 0.625766
-0.074277 -0.052455 0.625162
-0.074014 -0.052423 0.624598
-0.073673 -0.052310 0.623333
-0.073610 -0.052378 0.624398
-0.073426 -0.052458 0.624596
-0.073180 -0.052442 0.624183
-0.073001 -0.052363 0.624146
-0.072817 -0.052368 0.624219
-0.072590 -0.052404 0.624036
-0.072383 -0.052397 0.623913
-0.072259 -0.052321 0.624293
-0.071959 -0.052266 0.623404
-0.071775 -0.052256 0.623448
-0.071576 -0.052276 0.623436
-0.071276 -0.052201 0.622505
-0.071156 -0.052272 0.623168
-0.071075 -0.052386 0.624203
-0.070938 -0.052383 0.624618
-0.070547 -0.052272 0.622933
-0.070382 -0.052310 0.623202
-0.070271 -0.052302 0.623807
-0.070129 -0.052359 0.624288
-0.069930 -0.052401 0.624318
-0.069650 -0.052260 0.623399
-0.069568 -0.052291 0.624296
-0.069416 -0.052376 0.624758
-0.069187 -0.052431 0.624582
-0.069088 -0.052475 0.625377
-0.068855 -0.052438 0.625000
-0.068670 -0.052470 0.625125
-0.068334 -0.052319 0.623742
-0.068196 -0.052405 0.624316
-0.068047 -0.052407 0.624657
-0.067941 -0.052519 0.625541
-0.067732 -0.052457 0.625304
-0.067532 -0.052430 0.625191
-0.067377 -0.052490 0.625598
-0.067210 -0.052459 0.625750
-0.066997 -0.052557 0.625766
-0.066903 -0.052637 0.626699
-0.066768 -0.052652 0.627191
-0.066543 -0.052592 0.626823
-0.066230 -0.052491 0.625684
-0.066171 -0.052543 0.626848
-0.065986 -0.052571 0.626964
-0.065774 -0.052541 0.626759
-0.065504 -0.052502 0.626062
-0.065321 -0.052525 0.626184
-0.065151 -0.052563 0.626445
-0.064966 -0.052599 0.626575
-0.064700 -0.052617 0.626011
-0.064524 -0.052496 0.625920
-0.064429 -0.052664 0.627042
-0.064288 -0.052660 0.627464
-0.063950 -0.052549 0.626062
-0.063620 -0.052451 0.624739
-0.063536 -0.052452 0.625635
-0.063352 -0.052337 0.625488
-0.063202 -0.052479 0.626114
-0.062991 -0.052513 0.626026
-0.062774 -0.052518 0.625835
-0.062577 -0.052461 0.625686
-0.062395 -0.052426 0.625705
-0.062175 -0.052434 0.625491
-0.061948 -0.052342 0.625018
-0.061829 -0.052414 0.625779
-0.061628 -0.052360 0.625598
-0.061418 -0.052386 0.625506
-0.061256 -0.052335 0.625663
-0.061072 -0.052388 0.625833
-0.060825 -0.052390 0.625375
-0.060685 -0.052450 0.625941
-0.060493 -0.052393 0.625829
-0.060311 -0.052493 0.626125
-0.060242 -0.052509 0.627220
-0.059936 -0.052447 0.626115
-0.059684 -0.052400 0.625505
-0.059560 -0.052436 0.626169
-0.059413 -0.052505 0.626713
-0.059151 -0.052335 0.625756
-0.058962 -0.052306 0.625721
-0.058687 -0.052200 0.624776
-0.058569 -0.052298 0.625630
-0.058375 -0.052300 0.625619
-0.058228 -0.052373 0.626173
-0.058044 -0.052336 0.626172
-0.057795 -0.052294 0.625578
-0.057570 -0.052225 0.625140
-0.057339 -0.052351 0.625057
-0.057167 -0.052423 0.625384
-0.057072 -0.052394 0.626199
-0.057009 -0.052407 0.627400
-0.056687 -0.052420 0.626256
-0.056508 -0.052509 0.626565
-0.056245 -0.052432 0.625753
-0.056057 -0.052444 0.625813
-0.055999 -0.052483 0.627129
-0.055799 -0.052460 0.627012
-0.055441 -0.052347 0.625242
-0.055275 -0.052431 0.625661
-0.055131 -0.052434 0.626111
-0.054993 -0.052448 0.626653
-0.054825 -0.052538 0.627076
-0.054597 -0.052528 0.626716
-0.054367 -0.052474 0.626238
-0.054203 -0.052518 0.626601
-0.054117 -0.052619 0.627833
-0.053816 -0.052519 0.626582
-0.053591 -0.052579 0.626403
-0.053497 -0.052509 0.627181
-0.053308 -0.052572 0.627355
-0.053132 -0.052593 0.627565
-0.052881 -0.052670 0.627170
-0.052839 -0.052724 0.628743
-0.052688 -0.052787 0.629292
-0.052518 -0.052748 0.629424
-0.052306 -0.052765 0.629276
-0.052102 -0.052782 0.629206
-0.051902 -0.052783 0.629134
-0.051647 -0.052696 0.628329
-0.051551 -0.052740 0.629380
-0.051377 -0.052699 0.629477
-0.051066 -0.052542 0.627946
-0.050911 -0.052604 0.628462
-0.050737 -0.052618 0.628683
-0.050458 -0.052589 0.627741
-0.050355 -0.052634 0.628750
-0.050158 -0.052618 0.628664
-0.049948 -0.052645 0.628549
-0.049758 -0.052692 0.628694
-0.049591 -0.052661 0.628873
-0.049381 -0.052614 0.628593
-0.049249 -0.052660 0.629321
-0.049086 -0.052664 0.629638
-0.048828 -0.052656 0.628943
-0.048625 -0.052604 0.628713
-0.048469 -0.052644 0.629183
-0.048377 -0.052719 0.630412
-0.048114 -0.052673 0.629571
-0.047861 -0.052554 0.628648
-0.047745 -0.052694 0.629796
-0.047528 -0.052509 0.629088
-0.047330 -0.052533 0.629095
-0.047191 -0.052677 0.630015
-0.047020 -0.052490 0.629779
-0.046798 -0.052592 0.629727
-0.046589 -0.052680 0.629764
-0.046433 -0.052595 0.629954
-0.046246 -0.052607 0.630042
-0.046082 -0.052638 0.630429
-0.045877 -0.052630 0.630285
-0.045652 -0.052761 0.630262
-0.045494 -0.052683 0.630444
-0.045319 -0.052663 0.630593
-0.045032 -0.052588 0.629359
-0.044852 -0.052479 0.629221
-0.044758 -0.052639 0.630722
-0.044536 -0.052652 0.630433
-0.044427 -0.052745 0.631612
-0.044249 -0.052689 0.631628
-0.044145 -0.052586 0.632354
-0.043745 -0.052572 0.630003
-0.043597 -0.052721 0.630896
-0.043470 -0.052783 0.631815
-0.043446 -0.052885 0.633999
-0.043145 -0.052962 0.632984
-0.043025 -0.053241 0.634561
-0.042912 -0.053017 0.634905
-0.042552 -0.052836 0.632499
-0.042393 -0.052886 0.633035
-0.042318 -0.052944 0.634566
-0.042152 -0.052737 0.634333
-0.041745 -0.053021 0.632610
-0.041576 -0.053265 0.633550
-0.041470 -0.053027 0.633946
-0.041314 -0.053075 0.634523
-0.041157 -0.053257 0.635456
-0.041016 -0.052990 0.635352
-0.040807 -0.053277 0.635967
-0.040597 -0.053288 0.635811
-0.040500 -0.053329 0.637101
-0.040138 -0.053227 0.634785
-0.040079 -0.053293 0.636621
-0.039970 -0.053511 0.638265
-0.039598 -0.053239 0.635330
-0.039474 -0.053019 0.635577
-0.039433 -0.053243 0.638097
-0.039251 -0.053335 0.638524
-0.039041 -0.053484 0.638756
-0.038766 -0.053408 0.637539
-0.038724 -0.053508 0.639750
-0.038542 -0.053383 0.639547
-0.038286 -0.053369 0.638752
-0.038083 -0.053423 0.638807
-0.037952 -0.053359 0.639435
-0.037717 -0.053418 0.639093
-0.037558 -0.053520 0.639855
-0.037292 -0.053529 0.638975
-0.037173 -0.053805 0.640770
-0.036903 -0.053567 0.639103
-0.036783 -0.053565 0.640073
-0.036601 -0.053496 0.640041
-0.036327 -0.053536 0.639122
-0.036251 -0.053668 0.641093
-0.036180 -0.053618 0.642596
-0.035914 -0.053635 0.641723
-0.035723 -0.053598 0.641664
-0.035554 -0.053587 0.641993
-0.035439 -0.053545 0.642954
-0.035269 -0.053984 0.644677
-0.035067 -0.054029 0.644734
-0.034804 -0.053528 0.642270
-0.034722 -0.053719 0.644425
-0.034383 -0.053544 0.641914
-0.034062 -0.053610 0.640397
-0.034070 -0.053687 0.643466
-0.034025 -0.054027 0.646660
-0.033788 -0.054248 0.646800
-0.033461 -0.053817 0.643602
-0.033349 -0.053728 0.644503
-0.033260 -0.053895 0.646563
-0.033032 -0.054042 0.646603
-0.032846 -0.054196 0.647269
-0.032637 -0.053967 0.646356
-0.032490 -0.053933 0.646954
-0.032365 -0.054229 0.648993
-0.032266 -0.054245 0.650480
-0.032063 -0.054217 0.650326
-0.100387 -0.054473 0.650929
-0.100082 -0.054454 0.650317
-0.099845 -0.054413 0.650067
-0.099713 -0.054459 0.650540
-0.099592 -0.054581 0.651183
-0.099299 -0.054396 0.650411
-0.099115 -0.054456 0.650605
-0.098958 -0.054517 0.650960
-0.098721 -0.054518 0.650764
-0.098446 -0.054425 0.650214
-0.098166 -0.054365 0.649680
-0.098085 -0.054287 0.650283
-0.097797 -0.054253 0.649737
-0.097319 -0.054248 0.648118
-0.097027 -0.054262 0.647608
-0.096896 -0.054326 0.648116
-0.096719 -0.054289 0.648211
-0.096250 -0.054055 0.646305
-0.095825 -0.054014 0.644917
-0.095746 -0.054087 0.645749
-0.095581 -0.054079 0.645958
-0.095341 -0.054058 0.645694
-0.094959 -0.053986 0.644513
-0.094813 -0.054070 0.644961
-0.094426 -0.053821 0.643492
-0.094421 -0.053958 0.644861
-0.094286 -0.054081 0.645437
-0.093889 -0.053989 0.644126
-0.093697 -0.053978 0.644158
-0.093436 -0.053909 0.643696
-0.093259 -0.053925 0.643863
-0.092894 -0.053731 0.642581
-0.092736 -0.053785 0.642917
-0.092423 -0.053690 0.642091
-0.092197 -0.053694 0.641938
-0.091971 -0.053618 0.641667
-0.091772 -0.053662 0.641735
-0.091525 -0.053705 0.641510
-0.091241 -0.053540 0.640750
-0.090953 -0.053632 0.640340
-0.090669 -0.053650 0.639840
-0.090416 -0.053590 0.639418
-0.090207 -0.053552 0.639299
-0.090118 -0.053590 0.640039
-0.089851 -0.053563 0.639580
-0.089751 -0.053546 0.640174
-0.089538 -0.053529 0.640060
-0.089312 -0.053529 0.639887
-0.088911 -0.053474 0.638536
-0.088691 -0.053519 0.638471
-0.088540 -0.053450 0.638665
-0.088346 -0.053443 0.638688
-0.088032 -0.053385 0.637867
-0.087818 -0.053384 0.637768
-0.087686 -0.053356 0.638147
-0.087401 -0.053345 0.637578
-0.087151 -0.053383 0.637305
-0.087031 -0.053412 0.637851
-0.086740 -0.053279 0.637052
-0.086550 -0.053181 0.636955
-0.086354 -0.053281 0.637115
-0.086195 -0.053319 0.637427
-0.086055 -0.053342 0.637834
-0.085871 -0.053444 0.638086
-0.085635 -0.053424 0.637805
-0.085325 -0.053248 0.636813
-0.085126 -0.053265 0.636828
-0.084938 -0.053255 0.636875
-0.084525 -0.053098 0.635221
-0.084442 -0.053087 0.635955
-0.084231 -0.053234 0.636094
-0.083876 -0.053132 0.634898
-0.083566 -0.052971 0.633902
-0.083424 -0.053017 0.634333
-0.083252 -0.053065 0.634577
-0.083051 -0.053104 0.634609
-0.082854 -0.053033 0.634499
-0.082660 -0.053083 0.634593
-0.082262 -0.052969 0.633070
-0.081985 -0.052862 0.632362
-0.081760 -0.052918 0.632258
-0.081578 -0.053022 0.632518
-0.081554 -0.053021 0.633672
-0.081256 -0.052990 0.632936
-0.081019 -0.052998 0.632673
-0.080786 -0.053003 0.632434
-0.080668 -0.052959 0.632890
-0.080356 -0.052895 0.632002
-0.080227 -0.052952 0.632549
-0.080036 -0.053100 0.632822
-0.079680 -0.052766 0.631189
-0.079595 -0.052807 0.632014
-0.079312 -0.052980 0.631692
-0.079039 -0.052850 0.630949
-0.078751 -0.052740 0.630131
-0.078636 -0.052790 0.630763
-0.078400 -0.052835 0.630555
-0.078196 -0.052778 0.630404
-0.077898 -0.052603 0.629399
-0.077678 -0.052687 0.629362
-0.077471 -0.052724 0.629334
-0.077174 -0.052591 0.628403
-0.076715 -0.052383 0.626194
-0.076697 -0.052427 0.627506
-0.076438 -0.052494 0.627160
-0.076261 -0.052460 0.627222
-0.075896 -0.052365 0.625854
-0.075735 -0.052348 0.626056
-0.075637 -0.052354 0.626746
-0.075440 -0.052368 0.626747
-0.075119 -0.052314 0.625747
-0.074978 -0.052462 0.626377
-0.074725 -0.052343 0.625746
-0.074370 -0.052216 0.624372
-0.074305 -0.052253 0.625355
-0.074060 -0.052229 0.624943
-0.073664 -0.052100 0.623248
-0.073561 -0.052185 0.624051
-0.073402 -0.052239 0.624386
-0.073199 -0.052204 0.624258
-0.073029 -0.052247 0.624493
-0.072866 -0.052247 0.624711
-0.072643 -0.052267 0.624532
-0.072434 -0.052287 0.624444
-0.072225 -0.052188 0.624155
-0.072016 -0.052155 0.623981
-0.071799 -0.052199 0.623872
-0.071593 -0.052125 0.623646
-0.071296 -0.052009 0.622666
-0.071172 -0.052066 0.623275
-0.071086 -0.052068 0.624076
-0.070844 -0.052050 0.623669
-0.070530 -0.052110 0.622866
-0.070352 -0.052147 0.623040
-0.070264 -0.052297 0.624088
-0.070120 -0.052191 0.624275
-0.069911 -0.052230 0.624219
-0.069681 -0.052183 0.623850
-0.069548 -0.052166 0.624273
-0.069385 -0.052199 0.624557
-0.069177 -0.052278 0.624581
-0.069015 -0.052260 0.624787
-0.068773 -0.052224 0.624345
-0.068558 -0.052285 0.624275
-0.068367 -0.052266 0.624255
-0.068275 -0.052291 0.625080
-0.068087 -0.052262 0.625067
-0.067855 -0.052326 0.624874
-0.067631 -0.052276 0.624545
-0.067552 -0.052299 0.625473
-0.067515 -0.052362 0.626810
-0.067375 -0.052503 0.627493
-0.066991 -0.052407 0.625806
-0.066871 -0.052462 0.626491
-0.066781 -0.052485 0.627349
-0.066602 -0.052552 0.627588
-0.066309 -0.052374 0.626462
-0.066245 -0.052274 0.627307
-0.066107 -0.052528 0.628226
-0.065763 -0.052411 0.626799
-0.065460 -0.052318 0.625736
-0.065245 -0.052263 0.625455
-0.065132 -0.052354 0.626266
-0.064995 -0.052424 0.626854
-0.064627 -0.052230 0.625063
-0.064500 -0.052256 0.625648
-0.064355 -0.052345 0.626204
-0.064276 -0.052438 0.627316
-0.063898 -0.052223 0.625386
-0.063775 -0.052259 0.626025
-0.063590 -0.052267 0.626110
-0.063412 -0.052326 0.626346
-0.063093 -0.052220 0.625090
-0.062948 -0.052323 0.625686
-0.062786 -0.052400 0.626091
-0.062667 -0.052304 0.626515
-0.062428 -0.052281 0.626088
-0.062209 -0.052338 0.625974
-0.061977 -0.052233 0.625440
-0.061803 -0.052120 0.625366
-0.061619 -0.052112 0.625425
-0.061461 -0.052151 0.625795
-0.061261 -0.052151 0.625732
-0.061057 -0.052228 0.625788
-0.060836 -0.052219 0.625525
-0.060729 -0.052240 0.626297
-0.060448 -0.052152 0.625358
-0.060292 -0.052305 0.625981
-0.060198 -0.052315 0.626849
-0.059943 -0.052187 0.626054
-0.059661 -0.052126 0.625144
-0.059535 -0.052198 0.625871
-0.059351 -0.052214 0.625980
-0.059170 -0.052235 0.626118
-0.058976 -0.052209 0.626054
-0.058794 -0.052171 0.626064
-0.058579 -0.052202 0.625926
-0.058335 -0.052125 0.625317
-0.058249 -0.052174 0.626359
-0.058053 -0.052131 0.626239
-0.057780 -0.052107 0.625469
-0.057611 -0.052146 0.625753
-0.057460 -0.052273 0.626387
-0.057271 -0.052261 0.626397
-0.057109 -0.052214 0.626568
-0.056918 -0.052196 0.626545
-0.056656 -0.052185 0.625893
-0.056523 -0.052287 0.626647
-0.056280 -0.052233 0.626065
-0.056083 -0.052301 0.626168
-0.055986 -0.052337 0.627121
-0.055766 -0.052313 0.626815
-0.055423 -0.052013 0.624779
-0.055316 -0.052103 0.625759
-0.055162 -0.052285 0.626502
-0.055031 -0.052471 0.627477
-0.054848 -0.052432 0.627482
-0.054608 -0.052351 0.626864
-0.054361 -0.052242 0.626112
-0.054203 -0.052301 0.626563
-0.054075 -0.052417 0.627426
-0.053860 -0.052425 0.627227
-0.053628 -0.052379 0.626747
-0.053496 -0.052392 0.627356
-0.053342 -0.052416 0.627773
-0.053146 -0.052454 0.627824
-0.052992 -0.052481 0.628254
-0.052735 -0.052484 0.627639
-0.052622 -0.052481 0.628404
-0.052472 -0.052466 0.628785
-0.052275 -0.052522 0.628871
-0.052107 -0.052552 0.629187
-0.051928 -0.052538 0.629283
-0.051557 -0.052364 0.627135
-0.051510 -0.052527 0.628943
-0.051351 -0.052506 0.629226
-0.051088 -0.052504 0.628528
-0.051016 -0.052551 0.629841
-0.050712 -0.052435 0.628458
-0.050469 -0.052379 0.627830
-0.050297 -0.052409 0.628105
-0.050166 -0.052508 0.628946
-0.050025 -0.052574 0.629625
-0.049796 -0.052566 0.629244
-0.049568 -0.052329 0.628323
-0.049367 -0.052368 0.628327
-0.049280 -0.052503 0.629728
-0.048978 -0.052352 0.628245
-0.048756 -0.052259 0.627724
-0.048599 -0.052393 0.628409
-0.048387 -0.052379 0.628168
-0.048245 -0.052362 0.628657
-0.048034 -0.052446 0.628661
-0.047829 -0.052378 0.628367
-0.047703 -0.052522 0.629412
-0.047531 -0.052410 0.629361
-0.047362 -0.052444 0.629692
-0.047245 -0.052501 0.630639
-0.047037 -0.052467 0.630396
-0.046794 -0.052524 0.630004
-0.046659 -0.052637 0.630896
-0.046380 -0.052398 0.629385
-0.046245 -0.052411 0.630036
-0.046040 -0.052457 0.630023
-0.045901 -0.052514 0.630749
-0.045748 -0.052658 0.631541
-0.045572 -0.052576 0.631530
-0.045243 -0.052374 0.629520
-0.044995 -0.052331 0.628800
-0.044827 -0.052354 0.629135
-0.044726 -0.052482 0.630467
-0.044714 -0.052747 0.633169
-0.044428 -0.052638 0.631852
-0.044276 -0.052576 0.632154
-0.043825 -0.052424 0.628865
-0.043735 -0.052420 0.630008
-0.043579 -0.052378 0.630308
-0.043477 -0.052725 0.632249
-0.043492 -0.052858 0.634973
-0.043194 -0.052776 0.633570
-0.043028 -0.052799 0.633956
-0.042882 -0.052664 0.634137
-0.042531 -0.052625 0.632227
-0.042399 -0.052717 0.633181
-0.042325 -0.052691 0.634502
-0.042105 -0.052752 0.634366
-0.041785 -0.052669 0.632661
-0.041590 -0.052878 0.633208
-0.041597 -0.052713 0.635126
-0.041309 -0.052995 0.634787
-0.041130 -0.052908 0.634724
-0.040973 -0.053122 0.635750
-0.040835 -0.053015 0.636127
-0.040704 -0.053049 0.636992
-0.040371 -0.053099 0.635450
-0.040180 -0.052815 0.634703
-0.040115 -0.053044 0.636911
-0.039926 -0.053117 0.637186
-0.039517 -0.052896 0.633936
-0.039413 -0.052992 0.635306
-0.039414 -0.053220 0.638364
-0.039306 -0.052970 0.638726
-0.038990 -0.052937 0.637121
-0.038744 -0.053192 0.637219
-0.038657 -0.053284 0.638839
-0.038427 -0.053129 0.637946
-0.038317 -0.053159 0.639097
-0.038119 -0.053154 0.639057
-0.037863 -0.053363 0.638884
-0.037783 -0.053275 0.640101
-0.037582 -0.053261 0.639995
-0.037340 -0.053372 0.639711
-0.037231 -0.053338 0.640733
-0.036929 -0.053283 0.639179
-0.036875 -0.053354 0.641243
-0.036576 -0.053518 0.640370
-0.036380 -0.053468 0.640212
-0.036299 -0.053361 0.641405
-0.036054 -0.053415 0.640922
-0.035908 -0.053400 0.641526
-0.035795 -0.053550 0.643099
-0.035595 -0.053489 0.642863
-0.035308 -0.053604 0.641989
-0.035385 -0.053824 0.646371
-0.035100 -0.053731 0.644885
-0.034856 -0.053432 0.643303
-0.034665 -0.053410 0.643306
-0.034498 -0.053681 0.644569
-0.034183 -0.053663 0.642875
-0.034142 -0.053961 0.645963
-0.033951 -0.053746 0.645376
-0.033655 -0.053911 0.644499
-0.033433 -0.053784 0.643736
-0.033405 -0.053730 0.645947
-0.033287 -0.053750 0.647128
-0.033151 -0.054023 0.648903
-0.033011 -0.054287 0.650590
-0.032731 -0.053861 0.648021
-0.032529 -0.053765 0.647627
-0.032365 -0.054062 0.649111
-0.032143 -0.054302 0.649554
-0.032039 -0.054261 0.650798
-0.100146 -0.054205 0.650633
-0.099893 -0.054261 0.650425
-0.099765 -0.054335 0.650957
-0.099535 -0.054287 0.650740
-0.099250 -0.054211 0.650162
-0.099213 -0.054278 0.651216
-0.098882 -0.054110 0.650242
-0.098790 -0.054235 0.651063
-0.098579 -0.054168 0.650922
-0.098196 -0.054128 0.649817
-0.098044 -0.054132 0.650125
-0.097854 -0.054095 0.650148
-0.097442 -0.054030 0.648826
-0.097117 -0.054036 0.648111
-0.096940 -0.054013 0.648231
-0.096739 -0.054064 0.648310
-0.096529 -0.054041 0.648231
-0.096062 -0.053970 0.646559
-0.095790 -0.053974 0.646146
-0.095614 -0.053833 0.646100
-0.095504 -0.053835 0.646647
-0.095046 -0.053772 0.645027
-0.094643 -0.053755 0.643793
-0.094614 -0.053696 0.644740
-0.094500 -0.053759 0.645351
-0.094282 -0.053735 0.645215
-0.094066 -0.053814 0.645237
-0.093802 -0.053697 0.644690
-0.093103 -0.053446 0.641311
-0.093083 -0.053638 0.642681
-0.093025 -0.053726 0.643670
-0.092799 -0.053547 0.643257
-0.092359 -0.053610 0.641882
-0.092089 -0.053483 0.641273
-0.091940 -0.053468 0.641562
-0.091771 -0.053526 0.641837
-0.091477 -0.053443 0.641131
-0.091348 -0.053440 0.641565
-0.091057 -0.053522 0.641120
-0.090746 -0.053452 0.640330
-0.090444 -0.053262 0.639413
-0.090386 -0.053450 0.640564
-0.090078 -0.053340 0.639727
-0.089849 -0.053209 0.639346
-0.089633 -0.053260 0.639315
-0.089467 -0.053454 0.639811
-0.089100 -0.053191 0.638361
-0.088660 -0.053144 0.636772
-0.088656 -0.053281 0.638198
-0.088645 -0.053310 0.639430
-0.088433 -0.053168 0.639134
-0.088093 -0.053214 0.638304
-0.087867 -0.053299 0.638258
-0.087703 -0.053229 0.638375
-0.087255 -0.052918 0.636309
-0.087143 -0.053083 0.637109
-0.086937 -0.053146 0.637155
-0.086922 -0.053183 0.638386
-0.086723 -0.053178 0.638373
-0.086439 -0.053147 0.637772
-0.086278 -0.053133 0.637990
-0.085996 -0.053002 0.637247
-0.085790 -0.053143 0.637413
-0.085604 -0.053165 0.637526
-0.085205 -0.052956 0.635896
-0.085056 -0.052862 0.636060
-0.084917 -0.052909 0.636519
-0.084432 -0.052830 0.634517
-0.084189 -0.052847 0.634243
-0.084207 -0.052955 0.635821
-0.084041 -0.053044 0.636163
-0.083747 -0.052945 0.635374
-0.083374 -0.052812 0.634004
-0.083107 -0.052810 0.633535
-0.083093 -0.052917 0.634915
-0.082842 -0.052797 0.634362
-0.082605 -0.052835 0.634157
-0.082457 -0.052889 0.634566
-0.082138 -0.052676 0.633410
-0.081819 -0.052716 0.632656
-0.081600 -0.052643 0.632384
-0.081422 -0.052725 0.632638
-0.081331 -0.052849 0.633544
-0.081048 -0.052765 0.632823
-0.080839 -0.052614 0.632492
-0.080611 -0.052789 0.632557
-0.080452 -0.052808 0.632841
-0.080183 -0.052728 0.632212
-0.079937 -0.052777 0.631949
-0.079880 -0.052780 0.632904
-0.079490 -0.052599 0.631281
-0.079189 -0.052628 0.630598
-0.078921 -0.052667 0.630160
-0.078838 -0.052677 0.630957
-0.078630 -0.052561 0.630681
-0.078388 -0.052565 0.630364
-0.078047 -0.052522 0.629273
-0.077969 -0.052565 0.630161
-0.077550 -0.052324 0.628196
-0.077342 -0.052391 0.628217
-0.077181 -0.052419 0.628495
-0.076891 -0.052290 0.627608
-0.076583 -0.052158 0.626588
-0.076519 -0.052340 0.627808
-0.076318 -0.052279 0.627659
-0.075884 -0.052149 0.625741
-0.075705 -0.052243 0.626003
-0.075654 -0.052343 0.627189
-0.075491 -0.052282 0.627307
-0.075315 -0.052252 0.627388
-0.074869 -0.052139 0.625381
-0.074759 -0.052274 0.626210
-0.074374 -0.052064 0.624479
-0.074337 -0.052184 0.625805
-0.074357 -0.052273 0.627508
-0.073840 -0.052040 0.624763
-0.073548 -0.052073 0.624100
-0.073595 -0.052193 0.626057
-0.073218 -0.051924 0.624251
-0.072978 -0.052028 0.624090
-0.072967 -0.052193 0.625704
-0.072704 -0.051989 0.624837
-0.072409 -0.052086 0.624253
-0.072246 -0.051983 0.624295
-0.071994 -0.051938 0.623785
-0.071796 -0.051998 0.623850
-0.071615 -0.052054 0.624033
-0.071397 -0.051938 0.623640
-0.071112 -0.051850 0.622797
-0.071048 -0.051939 0.623909
-0.070823 -0.051851 0.623511
-0.070517 -0.051890 0.622725
-0.070387 -0.051881 0.623183
-0.070278 -0.051887 0.623820
-0.070126 -0.051949 0.624244
-0.070050 -0.051916 0.625068
-0.069898 -0.052057 0.625633
-0.069537 -0.052105 0.624435
-0.069447 -0.052126 0.625260
-0.069315 -0.052191 0.625844
-0.069166 -0.052266 0.626318
-0.068848 -0.052177 0.625192
-0.068556 -0.052074 0.624243
-0.068508 -0.052205 0.625600
-0.068402 -0.052208 0.626281
-0.068197 -0.052123 0.626035
-0.067923 -0.052123 0.625400
-0.067835 -0.052214 0.626388
-0.067595 -0.052109 0.625823
-0.067520 -0.052163 0.626851
-0.067395 -0.052232 0.627517
-0.067131 -0.052311 0.627100
-0.066945 -0.052258 0.627062
-0.066832 -0.052293 0.627765
-0.066547 -0.052299 0.627052
-0.066392 -0.052295 0.627343
-0.066170 -0.052114 0.626783
-0.065959 -0.052254 0.626897
-0.065756 -0.052331 0.626962
-0.065514 -0.052149 0.626229
-0.065254 -0.052078 0.625551
-0.065172 -0.052243 0.626761
-0.065033 -0.052167 0.627051
-0.064808 -0.052158 0.626779
-0.064477 -0.052070 0.625483
-0.064232 -0.051935 0.624798
-0.064220 -0.052120 0.626628
-0.064074 -0.052184 0.627141
-0.063837 -0.052190 0.626785
-0.063690 -0.052226 0.627238
-0.063320 -0.052072 0.625471
-0.063093 -0.052045 0.625138
-0.062987 -0.051991 0.625745
-0.062941 -0.052122 0.627229
-0.062668 -0.052188 0.626687
-0.062380 -0.052037 0.625593
-0.062204 -0.052001 0.625660
-0.061931 -0.051945 0.624872
-0.061822 -0.052037 0.625758
-0.061727 -0.052111 0.626727
-0.061482 -0.052101 0.626267
-0.061303 -0.052162 0.626505
-0.061023 -0.051939 0.625314
-0.060852 -0.051891 0.625394
-0.060705 -0.051947 0.625897
-0.060516 -0.052003 0.626041
-0.060241 -0.052061 0.625445
-0.059946 -0.051934 0.624297
-0.059905 -0.052002 0.625751
-0.059637 -0.051949 0.624982
-0.059486 -0.051934 0.625306
-0.059396 -0.051978 0.626294
-0.059159 -0.052022 0.625989
-0.058937 -0.052011 0.625711
-0.058808 -0.052095 0.626443
-0.058625 -0.052101 0.626541
-0.058381 -0.052014 0.625896
-0.058131 -0.051939 0.625229
-0.057943 -0.051913 0.625215
-0.057844 -0.051972 0.626170
-0.057664 -0.051971 0.626272
-0.057485 -0.052096 0.626660
-0.057296 -0.052110 0.626721
-0.057055 -0.051995 0.626040
-0.056876 -0.052033 0.626234
-0.056721 -0.052022 0.626549
-0.056530 -0.052049 0.626626
-0.056480 -0.052281 0.628417
-0.056132 -0.052065 0.626536
-0.055971 -0.052126 0.626954
-0.055740 -0.052028 0.626385
-0.055510 -0.051780 0.625503
-0.055431 -0.051929 0.626876
-0.055222 -0.052026 0.626930
-0.055036 -0.052126 0.627210
-0.054873 -0.052011 0.627230
-0.054710 -0.052079 0.627656
-0.054409 -0.052052 0.626573
-0.054253 -0.052087 0.626996
-0.054113 -0.052193 0.627727
-0.053908 -0.052212 0.627648
-0.053795 -0.052215 0.628412
-0.053551 -0.052046 0.627551
-0.053320 -0.052079 0.627255
-0.053194 -0.052232 0.628231
-0.052935 -0.052246 0.627626
-0.052830 -0.052287 0.628559
-0.052670 -0.052038 0.628316
-0.052420 -0.052240 0.628219
-0.052280 -0.052393 0.629080
-0.052089 -0.052287 0.628854
-0.051957 -0.052225 0.629309
-0.051665 -0.052195 0.628267
-0.051518 -0.052321 0.629007
-0.051303 -0.052263 0.628645
-0.051098 -0.052348 0.628720
-0.050811 -0.052114 0.627239
-0.050683 -0.052204 0.628094
-0.050522 -0.052259 0.628534
-0.050274 -0.052179 0.627793
-0.050175 -0.052346 0.629117
-0.050013 -0.052320 0.629377
-0.049865 -0.052218 0.629586
-0.049584 -0.052191 0.628630
-0.049400 -0.052082 0.628460
-0.049179 -0.052310 0.628704
-0.048990 -0.052220 0.628532
-0.048742 -0.052103 0.627675
-0.048670 -0.052419 0.629678
-0.048465 -0.052299 0.629263
-0.048226 -0.052336 0.628866
-0.048062 -0.052312 0.629109
-0.047867 -0.052288 0.629027
-0.047711 -0.052175 0.629129
-0.047476 -0.052281 0.628946
-0.047338 -0.052324 0.629623
-0.047241 -0.052366 0.630751
-0.047032 -0.052477 0.630855
-0.046854 -0.052388 0.630790
-0.046510 -0.052276 0.628896
-0.046407 -0.052308 0.629933
-0.046156 -0.052253 0.629177
-0.046011 -0.052249 0.629678
-0.045821 -0.052262 0.629744
-0.045677 -0.052212 0.630145
-0.045585 -0.052323 0.631531
-0.045347 -0.052270 0.630901
-0.045029 -0.052233 0.629429
-0.044896 -0.052257 0.630148
-0.044699 -0.052198 0.629950
-0.044571 -0.052255 0.630815
-0.044269 -0.052269 0.629635
-0.044123 -0.052152 0.629852
-0.043992 -0.052476 0.631389
-0.043810 -0.052577 0.631779
-0.043628 -0.052370 0.631362
-0.043587 -0.052659 0.633850
-0.043367 -0.052524 0.633195
-0.043186 -0.052399 0.633002
-0.043039 -0.052604 0.634091
-0.042880 -0.052638 0.634574
-0.042576 -0.052302 0.632407
-0.042411 -0.052166 0.632363
-0.042315 -0.052563 0.634573
-0.041984 -0.052547 0.632931
-0.041866 -0.052482 0.633639
-0.041674 -0.052655 0.634130
-0.041671 -0.052907 0.637068
-0.041320 -0.052610 0.634400
-0.041204 -0.052602 0.635305
-0.040987 -0.052775 0.635514
-0.040883 -0.052895 0.636929
-0.040756 -0.052610 0.636938
-0.040436 -0.052743 0.635795
-0.040228 -0.052730 0.635600
-0.039979 -0.052643 0.634689
-0.039821 -0.052857 0.635725
-0.039779 -0.052909 0.637735
-0.039482 -0.052710 0.635921
-0.039373 -0.052729 0.637024
-0.039169 -0.052889 0.637360
-0.038968 -0.052711 0.636778
-0.038829 -0.052779 0.637664
-0.038556 -0.053035 0.637417
-0.038299 -0.052937 0.636347
-0.038309 -0.053137 0.639523
-0.038153 -0.053163 0.640090
-0.037886 -0.052996 0.638693
-0.037773 -0.053147 0.640184
-0.037447 -0.052915 0.637817
-0.037443 -0.053091 0.640809
-0.037130 -0.053109 0.639330
-0.037023 -0.053182 0.640707
-0.036906 -0.053200 0.641777
-0.036644 -0.053457 0.641678
-0.036629 -0.053398 0.643896
-0.036154 -0.053449 0.640347
-0.036190 -0.053102 0.642364
-0.035876 -0.053127 0.640876
-0.035766 -0.053390 0.642835
-0.035491 -0.053428 0.641895
-0.035350 -0.053283 0.642178
-0.035077 -0.053044 0.640386
-0.034969 -0.053334 0.642492
-0.034747 -0.053361 0.642212
-0.034574 -0.053314 0.642388
-0.034530 -0.053545 0.645213
-0.034226 -0.053539 0.643707
-0.034128 -0.053631 0.645362
-0.033988 -0.053637 0.646177
-0.033949 -0.053972 0.649468
-0.033560 -0.053473 0.645169
-0.033475 -0.053727 0.647575
-0.033332 -0.053852 0.648750
-0.032993 -0.053688 0.646200
-0.032771 -0.053652 0.645723
-0.032798 -0.053918 0.649831
-0.032501 -0.053941 0.648473
-0.032391 -0.053912 0.649650
-0.032262 -0.053961 0.650832
-0.100070 -0.054085 0.651491
-0.099722 -0.054079 0.650648
-0.099568 -0.054035 0.650871
-0.099337 -0.054011 0.650677
-0.099053 -0.053949 0.650126
-0.098826 -0.054006 0.650062
-0.098760 -0.053965 0.650805
-0.098670 -0.053991 0.651498
-0.098242 -0.053887 0.650042
-0.098206 -0.054178 0.651427
-0.097855 -0.053943 0.650230
-0.097354 -0.053715 0.648160
-0.097223 -0.053835 0.648750
-0.096951 -0.053790 0.648271
-0.096845 -0.053890 0.648982
-0.096641 -0.053911 0.649006
-0.096312 -0.053793 0.648085
-0.095882 -0.053657 0.646541
-0.095641 -0.053667 0.646316
-0.095471 -0.053601 0.646414
-0.095120 -0.053521 0.645406
-0.094728 -0.053404 0.644093
-0.094652 -0.053667 0.645220
-0.094344 -0.053571 0.644443
-0.094167 -0.053537 0.644536
-0.094006 -0.053500 0.644724
-0.093594 -0.053530 0.643487
-0.093337 -0.053578 0.643216
-0.093189 -0.053540 0.643481
-0.093061 -0.053542 0.643923
-0.092697 -0.053527 0.642904
-0.092378 -0.053396 0.641991
-0.092093 -0.053358 0.641412
-0.091997 -0.053398 0.642106
-0.091745 -0.053372 0.641752
-0.091713 -0.053482 0.642946
-0.091318 -0.053349 0.641547
-0.091048 -0.053273 0.641005
-0.090793 -0.053235 0.640602
-0.090480 -0.053183 0.639819
-0.090142 -0.053197 0.638976
-0.090039 -0.053213 0.639599
-0.089858 -0.053157 0.639625
-0.089631 -0.053000 0.639219
-0.089458 -0.053139 0.639586
-0.089057 -0.053097 0.638260
-0.088953 -0.053158 0.638945
-0.088775 -0.053170 0.639092
-0.088713 -0.053136 0.639903
-0.088432 -0.053082 0.639305
-0.088011 -0.053059 0.637859
-0.087807 -0.053028 0.637776
-0.087607 -0.052926 0.637612
-0.087392 -0.052865 0.637413
-0.087163 -0.052878 0.637233
-0.086957 -0.052952 0.637295
-0.086785 -0.052975 0.637498
-0.086742 -0.053139 0.638744
-0.086497 -0.053083 0.638360
-0.086199 -0.053022 0.637626
-0.086015 -0.052979 0.637647
-0.085734 -0.052861 0.636927
-0.085535 -0.052955 0.637067
-0.085202 -0.052886 0.636078
-0.084979 -0.052718 0.635651
-0.084796 -0.052729 0.635765
-0.084622 -0.052738 0.635928
-0.084363 -0.052793 0.635612
-0.084145 -0.052716 0.635356
-0.083945 -0.052751 0.635396
-0.083849 -0.052866 0.636244
-0.083438 -0.052627 0.634452
-0.083161 -0.052638 0.633936
-0.083006 -0.052729 0.634357
-0.082904 -0.052736 0.635001
-0.082786 -0.052762 0.635570
-0.082363 -0.052634 0.633858
-0.082320 -0.052631 0.634879
-0.081819 -0.052555 0.632717
-0.081543 -0.052542 0.632158
-0.081470 -0.052571 0.633035
-0.081305 -0.052632 0.633347
-0.081187 -0.052638 0.633886
-0.080933 -0.052590 0.633416
-0.080640 -0.052616 0.632802
-0.080343 -0.052541 0.631996
-0.080129 -0.052432 0.631694
-0.079901 -0.052468 0.631532
-0.079632 -0.052403 0.630923
-0.079527 -0.052420 0.631570
-0.079309 -0.052535 0.631601
-0.079085 -0.052629 0.631557
-0.078826 -0.052554 0.630999
-0.078616 -0.052427 0.630691
-0.078479 -0.052366 0.630994
-0.077972 -0.052265 0.628660
-0.077754 -0.052306 0.628564
-0.077580 -0.052261 0.628639
-0.077337 -0.052163 0.628134
-0.077166 -0.052305 0.628534
-0.076804 -0.052128 0.627060
-0.076626 -0.052086 0.627103
-0.076470 -0.052159 0.627497
-0.076329 -0.052181 0.627911
-0.075827 -0.051980 0.625389
-0.075738 -0.052030 0.626215
-0.075589 -0.052130 0.626702
-0.075458 -0.052083 0.627067
-0.075151 -0.051868 0.625901
-0.074960 -0.051995 0.626128
-0.074824 -0.052017 0.626583
-0.074470 -0.051992 0.625383
-0.074278 -0.052064 0.625516
-0.074177 -0.051961 0.626014
-0.073960 -0.051960 0.625836
-0.073615 -0.051885 0.624604
-0.073445 -0.051943 0.624875
-0.073182 -0.051897 0.624280
-0.072873 -0.051840 0.623332
-0.072861 -0.051833 0.624648
-0.072663 -0.051840 0.624622
-0.072477 -0.051855 0.624703
-0.072046 -0.051693 0.622660
-0.071914 -0.051642 0.623016
-0.071730 -0.051775 0.623314
-0.071453 -0.051765 0.622663
-0.071459 -0.051815 0.624233
-0.071212 -0.051736 0.623693
-0.071052 -0.051629 0.623745
-0.070909 -0.051705 0.624254
-0.070662 -0.051770 0.623957
-0.070456 -0.051809 0.623928
-0.070374 -0.051847 0.624833
-0.070091 -0.051723 0.623929
-0.069975 -0.051747 0.624553
-0.069785 -0.051801 0.624669
-0.069670 -0.051938 0.625510
-0.069397 -0.051906 0.624834
-0.069324 -0.052035 0.625990
-0.069095 -0.052020 0.625686
-0.068904 -0.051876 0.625442
-0.068797 -0.051863 0.626078
-0.068591 -0.051876 0.626003
-0.068330 -0.051884 0.625492
-0.068082 -0.051773 0.624859
-0.068045 -0.051842 0.626201
-0.067867 -0.051952 0.626521
-0.067788 -0.052013 0.627527
-0.067481 -0.051983 0.626580
-0.067221 -0.052003 0.626092
-0.067105 -0.052065 0.626811
-0.066960 -0.051976 0.627026
-0.066850 -0.052053 0.627838
-0.066579 -0.052025 0.627162
-0.066337 -0.051917 0.626572
-0.066134 -0.052147 0.626921
-0.065814 -0.051972 0.625578
-0.065691 -0.051946 0.626089
-0.065568 -0.051966 0.626690
-0.065280 -0.052003 0.625997
-0.065210 -0.052089 0.627151
-0.064985 -0.051976 0.626679
-0.064746 -0.051941 0.626236
-0.064509 -0.051909 0.625814
-0.064314 -0.051901 0.625783
-0.064079 -0.051880 0.625391
-0.063972 -0.051889 0.626115
-0.063759 -0.051922 0.626012
-0.063595 -0.051948 0.626298
-0.063346 -0.051932 0.625799
-0.063166 -0.051879 0.625804
-0.062930 -0.051721 0.625129
-0.062752 -0.051751 0.625311
-0.062662 -0.051922 0.626503
-0.062356 -0.051878 0.625464
-0.062115 -0.051793 0.624892
-0.062117 -0.051959 0.626857
-0.061936 -0.051933 0.626901
-0.061768 -0.051979 0.627206
-0.061509 -0.051940 0.626568
-0.061226 -0.051892 0.625699
-0.060967 -0.051744 0.624833
-0.060903 -0.051801 0.626047
-0.060660 -0.051828 0.625666
-0.060485 -0.051835 0.625829
-0.060230 -0.051773 0.625171
-0.060037 -0.051750 0.625111
-0.059991 -0.051897 0.626682
-0.059721 -0.051902 0.626015
-0.059487 -0.051755 0.625358
-0.059393 -0.051865 0.626436
-0.059286 -0.051996 0.627460
-0.059028 -0.051917 0.626726
-0.058801 -0.051842 0.626262
-0.058598 -0.051861 0.626214
-0.058411 -0.051835 0.626200
-0.058211 -0.051781 0.626021
-0.057861 -0.051677 0.624399
-0.057818 -0.051793 0.625975
-0.057618 -0.051784 0.625883
-0.057501 -0.051997 0.627012
-0.057335 -0.051935 0.627119
-0.057084 -0.051850 0.626409
-0.056879 -0.051919 0.626435
-0.056821 -0.052007 0.627850
-0.056590 -0.051808 0.627079
-0.056403 -0.051827 0.627172
-0.056264 -0.051929 0.627881
-0.056017 -0.051952 0.627432
-0.055790 -0.051908 0.627014
-0.055595 -0.051912 0.627001
-0.055446 -0.051869 0.627313
-0.055196 -0.051795 0.626613
-0.055024 -0.051894 0.627016
-0.054858 -0.051859 0.627194
-0.054587 -0.051782 0.626279
-0.054380 -0.051923 0.626457
-0.054373 -0.051964 0.628293
-0.054113 -0.051847 0.627395
-0.053862 -0.051966 0.627102
-0.053838 -0.052051 0.628895
-0.053628 -0.052047 0.628725
-0.053360 -0.051964 0.627817
-0.053183 -0.051971 0.627981
-0.053039 -0.052054 0.628642
-0.052785 -0.051950 0.627808
-0.052562 -0.051904 0.627409
-0.052498 -0.052088 0.629081
-0.052351 -0.052149 0.629662
-0.052147 -0.052150 0.629561
-0.051921 -0.052110 0.629143
-0.051779 -0.052036 0.629471
-0.051506 -0.052227 0.629122
-0.051275 -0.052007 0.628236
-0.051119 -0.052008 0.628604
-0.050927 -0.052078 0.628769
-0.050733 -0.052065 0.628731
-0.050558 -0.052100 0.628989
-0.050345 -0.052059 0.628689
-0.050161 -0.052088 0.628842
-0.050032 -0.052099 0.629511
-0.049820 -0.051989 0.629055
-0.049579 -0.051969 0.628513
-0.049339 -0.052175 0.628519
-0.049181 -0.052079 0.628646
-0.049022 -0.052094 0.629025
-0.048808 -0.052201 0.629057
-0.048636 -0.052264 0.629425
-0.048487 -0.052188 0.629702
-0.048188 -0.052004 0.628150
-0.048075 -0.052233 0.629532
-0.047940 -0.052288 0.630269
-0.047730 -0.052144 0.629736
-0.047547 -0.052167 0.629902
-0.047379 -0.052226 0.630307
-0.047164 -0.052205 0.630015
-0.046959 -0.052175 0.629810
-0.046779 -0.052165 0.629932
-0.046544 -0.052262 0.629715
-0.046366 -0.052084 0.629432
-0.046190 -0.052111 0.629680
-0.045980 -0.052137 0.629554
-0.045817 -0.052078 0.629727
-0.045617 -0.052034 0.629540
-0.045595 -0.052278 0.632023
-0.045351 -0.052199 0.631266
-0.045079 -0.052210 0.630426
-0.044896 -0.052142 0.630363
-0.044819 -0.051946 0.631139
-0.044569 -0.052007 0.630656
-0.044245 -0.051820 0.628712
-0.044062 -0.051818 0.628806
-0.043877 -0.052079 0.629573
-0.043780 -0.052309 0.631249
-0.043589 -0.052157 0.630874
-0.043442 -0.052194 0.631501
-0.043221 -0.052155 0.631078
-0.043062 -0.052280 0.631794
-0.042839 -0.052313 0.631536
-0.042738 -0.052375 0.632772
-0.042685 -0.052342 0.634300
-0.042514 -0.052249 0.634313
-0.042206 -0.052094 0.632570
-0.042121 -0.052388 0.634633
-0.041863 -0.052350 0.633780
-0.041740 -0.052443 0.634862
-0.041483 -0.052538 0.634377
-0.041470 -0.052506 0.636437
-0.041371 -0.052474 0.637491
-0.040992 -0.052524 0.635426
-0.040981 -0.052597 0.637826
-0.040606 -0.052476 0.635320
-0.040484 -0.052740 0.636920
-0.040294 -0.052553 0.636462
-0.040167 -0.052471 0.637051
-0.039963 -0.052932 0.638233
-0.039809 -0.052688 0.638045
-0.039466 -0.052500 0.635679
-0.039345 -0.052678 0.637093
-0.039190 -0.052994 0.638495
-0.039099 -0.052832 0.639324
-0.038883 -0.052664 0.638579
-0.038628 -0.052740 0.638052
-0.038468 -0.052744 0.638498
-0.038338 -0.053091 0.640330
-0.038067 -0.052935 0.638915
-0.037815 -0.052694 0.637475
-0.037900 -0.052916 0.641717
-0.037553 -0.052801 0.639428
-0.037529 -0.052962 0.642121
-0.037245 -0.053024 0.641167
-0.037019 -0.052711 0.639836
-0.036845 -0.052616 0.639814
-0.036613 -0.053145 0.640934
-0.036500 -0.053335 0.642600
-0.036453 -0.053159 0.644047
-0.036115 -0.053041 0.641802
-0.035994 -0.053242 0.643422
-0.035732 -0.053362 0.642904
-0.035699 -0.053323 0.644976
-0.035491 -0.053311 0.644787
-0.035245 -0.053075 0.643393
-0.035037 -0.053172 0.643531
-0.034691 -0.053039 0.641069
-0.034501 -0.052975 0.640944
-0.034419 -0.053036 0.642705
-0.034326 -0.053545 0.645745
-0.034098 -0.053352 0.644699
-0.034002 -0.053434 0.646368
-0.033856 -0.053247 0.646474
-0.033642 -0.053336 0.646528
-0.033474 -0.053521 0.647543
-0.033304 -0.053742 0.648652
-0.032964 -0.053516 0.645883
-0.032725 -0.053420 0.644965
-0.032719 -0.053530 0.648077
-0.032648 -0.053673 0.650383
-0.032387 -0.053964 0.650434
-0.032257 -0.053693 0.650525
-0.100171 -0.054042 0.653480
-0.099465 -0.053843 0.650301
-0.099304 -0.053805 0.650494
-0.099123 -0.053815 0.650634
-0.098981 -0.053778 0.650937
-0.098692 -0.053839 0.650524
-0.098440 -0.053776 0.650151
-0.098172 -0.053657 0.649602
-0.098056 -0.053815 0.650338
-0.097825 -0.053740 0.650066
-0.097421 -0.053605 0.648693
-0.097289 -0.053648 0.649167
-0.096968 -0.053687 0.648525
-0.096816 -0.053719 0.648870
-0.096521 -0.053601 0.648149
-0.096239 -0.053547 0.647601
-0.095885 -0.053437 0.646542
-0.095582 -0.053454 0.645962
-0.095652 -0.053534 0.647696
-0.095223 -0.053411 0.646161
-0.094967 -0.053324 0.645708
-0.094490 -0.053321 0.644053
-0.094311 -0.053334 0.644198
-0.094188 -0.053351 0.644692
-0.093993 -0.053417 0.644827
-0.093649 -0.053239 0.643698
-0.093450 -0.053340 0.643858
-0.093245 -0.053287 0.643753
-0.092997 -0.053162 0.643286
-0.092620 -0.053147 0.642187
-0.092492 -0.053302 0.642853
-0.092558 -0.053370 0.644579
-0.092144 -0.053278 0.643138
-0.091831 -0.053176 0.642296
-0.091586 -0.053146 0.641975
-0.091391 -0.053129 0.641978
-0.091071 -0.053004 0.641052
-0.090886 -0.053060 0.641223
-0.090580 -0.053078 0.640592
-0.090222 -0.053025 0.639523
-0.090014 -0.053027 0.639471
-0.089911 -0.053043 0.640093
-0.089729 -0.053015 0.640157
-0.089509 -0.053035 0.640060
-0.089220 -0.052943 0.639361
-0.088773 -0.052780 0.637556
-0.088767 -0.053034 0.639142
-0.088576 -0.052959 0.639081
-0.088345 -0.052939 0.638846
-0.088163 -0.052917 0.638918
-0.087911 -0.052861 0.638496
-0.087605 -0.052778 0.637688
-0.087401 -0.052864 0.637780
-0.087262 -0.052841 0.638124
-0.087018 -0.052805 0.637772
-0.086779 -0.052701 0.637351
-0.086681 -0.052876 0.638262
-0.086469 -0.052845 0.638131
-0.086271 -0.052845 0.638132
-0.085981 -0.052780 0.637434
-0.085755 -0.052641 0.637038
-0.085595 -0.052658 0.637310
-0.085248 -0.052625 0.636290
-0.085142 -0.052685 0.636978
-0.084965 -0.052623 0.637019
-0.084548 -0.052530 0.635440
-0.084486 -0.052505 0.636288
-0.084207 -0.052527 0.635786
-0.083976 -0.052540 0.635583
-0.083769 -0.052499 0.635457
-0.083457 -0.052519 0.634730
-0.083194 -0.052427 0.634143
-0.083074 -0.052472 0.634725
-0.082811 -0.052592 0.634475
-0.082667 -0.052490 0.634664
-0.082493 -0.052419 0.634703
-0.082252 -0.052435 0.634435
-0.081940 -0.052392 0.633591
-0.081699 -0.052421 0.633341
-0.081399 -0.052356 0.632536
-0.081242 -0.052374 0.632830
-0.081175 -0.052434 0.633801
-0.080950 -0.052374 0.633508
-0.080687 -0.052347 0.633016
-0.080421 -0.052315 0.632489
-0.080191 -0.052316 0.632257
-0.079839 -0.052264 0.631102
-0.079611 -0.052169 0.630726
-0.079404 -0.052172 0.630653
-0.079277 -0.052245 0.631237
-0.079195 -0.052314 0.632138
-0.078870 -0.052280 0.631187
-0.078693 -0.052240 0.631245
-0.078442 -0.052105 0.630641
-0.078088 -0.052162 0.629631
-0.077929 -0.052247 0.630021
-0.077638 -0.052179 0.629233
-0.077289 -0.052039 0.627920
-0.077080 -0.052079 0.627883
-0.076962 -0.052041 0.628360
-0.076635 -0.051960 0.627291
-0.076415 -0.051949 0.627086
-0.076277 -0.051962 0.627510
-0.076045 -0.051888 0.627116
-0.075777 -0.051749 0.626354
-0.075535 -0.051787 0.626077
-0.075274 -0.051747 0.625523
-0.075136 -0.051720 0.625879
-0.074997 -0.051740 0.626302
-0.074801 -0.051723 0.626254
-0.074539 -0.051829 0.625947
-0.074350 -0.051816 0.625950
-0.074108 -0.051767 0.625516
-0.073782 -0.051736 0.624500
-0.073577 -0.051687 0.624330
-0.073426 -0.051735 0.624719
-0.073206 -0.051621 0.624327
-0.072964 -0.051563 0.623867
-0.072731 -0.051527 0.623506
-0.072591 -0.051614 0.624045
-0.072433 -0.051657 0.624382
-0.072117 -0.051414 0.623041
-0.071950 -0.051492 0.623369
-0.071748 -0.051578 0.623449
-0.071498 -0.051612 0.623081
-0.071492 -0.051605 0.624460
-0.071230 -0.051493 0.623749
-0.071018 -0.051471 0.623564
-0.070859 -0.051465 0.623805
-0.070626 -0.051607 0.623748
-0.070479 -0.051648 0.624168
-0.070321 -0.051655 0.624437
-0.070208 -0.051606 0.624961
-0.070050 -0.051547 0.625122
-0.069920 -0.051678 0.625830
-0.069695 -0.051664 0.625563
-0.069483 -0.051664 0.625414
-0.069288 -0.051742 0.625540
-0.068908 -0.051675 0.623979
-0.068862 -0.051624 0.625017
-0.068747 -0.051727 0.625808
-0.068575 -0.051757 0.626028
-0.068265 -0.051675 0.624967
-0.068067 -0.051643 0.624865
-0.068022 -0.051731 0.626183
-0.067882 -0.051839 0.626792
-0.067730 -0.051857 0.627149
-0.067492 -0.051821 0.626734
-0.067300 -0.051844 0.626782
-0.067138 -0.051867 0.627072
-0.066974 -0.051834 0.627248
-0.066788 -0.051870 0.627375
-0.066584 -0.051877 0.627298
-0.066334 -0.051828 0.626757
-0.066203 -0.051833 0.627265
-0.065934 -0.051826 0.626636
-0.065723 -0.051800 0.626443
-0.065557 -0.051913 0.626879
-0.065286 -0.051766 0.625966
-0.065001 -0.051685 0.625069
-0.064936 -0.051725 0.626176
-0.064727 -0.051794 0.626179
-0.064595 -0.051791 0.626671
-0.064282 -0.051691 0.625493
-0.064191 -0.051744 0.626431
-0.063995 -0.051600 0.626125
-0.063843 -0.051772 0.626795
-0.063626 -0.051772 0.626600
-0.063444 -0.051828 0.626794
-0.063211 -0.051723 0.626258
-0.063009 -0.051717 0.626171
-0.062918 -0.051841 0.627262
-0.062801 -0.051905 0.628021
-0.062435 -0.051770 0.626309
-0.062259 -0.051724 0.626353
-0.062160 -0.051793 0.627284
-0.061942 -0.051783 0.627048
-0.061687 -0.051754 0.626469
-0.061458 -0.051671 0.625995
-0.061375 -0.051718 0.627019
-0.061158 -0.051729 0.626833
-0.060968 -0.051753 0.626906
-0.060690 -0.051774 0.626214
-0.060560 -0.051752 0.626711
-0.060379 -0.051731 0.626768
-0.060156 -0.051717 0.626479
-0.059997 -0.051774 0.626887
-0.059801 -0.051739 0.626782
-0.059588 -0.051674 0.626471
-0.059399 -0.051660 0.626478
-0.059222 -0.051712 0.626722
-0.058993 -0.051720 0.626418
-0.058815 -0.051646 0.626391
-0.058627 -0.051665 0.626469
-0.058439 -0.051652 0.626477
-0.058278 -0.051733 0.626934
-0.057963 -0.051645 0.625652
-0.057766 -0.051574 0.625464
-0.057603 -0.051625 0.625834
-0.057418 -0.051612 0.625867
-0.057278 -0.051670 0.626463
-0.057079 -0.051681 0.626420
-0.056937 -0.051689 0.626899
-0.056813 -0.051665 0.627467
-0.056611 -0.051704 0.627469
-0.056425 -0.051696 0.627514
-0.056241 -0.051717 0.627638
-0.056065 -0.051818 0.628005
-0.055851 -0.051785 0.627740
-0.055623 -0.051766 0.627367
-0.055521 -0.051769 0.628218
-0.055162 -0.051596 0.626296
-0.055024 -0.051701 0.627029
-0.054896 -0.051778 0.627803
-0.054627 -0.051791 0.627113
-0.054408 -0.051754 0.626781
-0.054223 -0.051709 0.626749
-0.054111 -0.051729 0.627559
-0.053924 -0.051815 0.627792
-0.053836 -0.051813 0.628792
-0.053603 -0.051727 0.628215
-0.053451 -0.051778 0.628716
-0.053287 -0.051838 0.629133
-0.052991 -0.051772 0.627983
-0.052800 -0.051817 0.628105
-0.052679 -0.051882 0.628945
-0.052538 -0.051894 0.629474
-0.052357 -0.051975 0.629773
-0.052111 -0.051908 0.629106
-0.051936 -0.051886 0.629227
-0.051762 -0.051885 0.629411
-0.051529 -0.051915 0.629089
-0.051333 -0.051931 0.629088
-0.051080 -0.051969 0.628572
-0.050940 -0.052012 0.629205
-0.050757 -0.051991 0.629251
-0.050622 -0.052082 0.630048
-0.050486 -0.051872 0.630129
-0.050183 -0.051880 0.629033
-0.049934 -0.051890 0.628493
-0.049829 -0.051912 0.629431
-0.049583 -0.051825 0.628681
-0.049393 -0.051995 0.629108
-0.049209 -0.051931 0.629053
-0.049040 -0.051865 0.629139
-0.048867 -0.051935 0.629502
-0.048663 -0.052015 0.629583
-0.048386 -0.051935 0.628514
-0.048302 -0.051934 0.629640
-0.048140 -0.052006 0.630136
-0.047944 -0.052002 0.630100
-0.047774 -0.052029 0.630401
-0.047566 -0.052025 0.630234
-0.047384 -0.052101 0.630536
-0.047216 -0.052013 0.630583
-0.046944 -0.051868 0.629383
-0.046754 -0.051921 0.629540
-0.046627 -0.052029 0.630511
-0.046381 -0.051989 0.629845
-0.046176 -0.051866 0.629409
-0.045992 -0.051915 0.629626
-0.045858 -0.051890 0.630195
-0.045625 -0.051917 0.629829
-0.045491 -0.052026 0.630750
-0.045346 -0.052005 0.631214
-0.045029 -0.051931 0.629663
-0.044897 -0.051954 0.630389
-0.044842 -0.052024 0.632100
-0.044623 -0.052182 0.632230
-0.044366 -0.051943 0.630897
-0.044171 -0.051898 0.630749
-0.044003 -0.051914 0.631081
-0.043815 -0.052289 0.632106
-0.043674 -0.052040 0.632052
-0.043586 -0.051850 0.632743
-0.043295 -0.051903 0.631768
-0.043130 -0.052199 0.632878
-0.043002 -0.052133 0.633455
-0.042777 -0.052061 0.632903
-0.042629 -0.052240 0.633917
-0.042447 -0.052150 0.633809
-0.042184 -0.051857 0.632199
-0.042013 -0.052149 0.633254
-0.041886 -0.052159 0.634063
-0.041771 -0.052284 0.635338
-0.041337 -0.052054 0.631873
-0.041361 -0.052224 0.634921
-0.041272 -0.052214 0.636138
-0.041036 -0.052236 0.635701
-0.040799 -0.052514 0.635958
-0.040519 -0.052163 0.633948
-0.040309 -0.052047 0.633424
-0.040141 -0.052168 0.634075
-0.040192 -0.052239 0.637248
-0.040034 -0.052572 0.638654
-0.039672 -0.052028 0.635040
-0.039501 -0.052599 0.636962
-0.039313 -0.052573 0.636965
-0.039195 -0.052644 0.638127
-0.038956 -0.052643 0.637573
-0.038853 -0.052601 0.638599
-0.038606 -0.052492 0.637627
-0.038502 -0.052432 0.638599
-0.038436 -0.052989 0.641850
-0.038154 -0.052695 0.639905
-0.037951 -0.052618 0.639581
-0.037700 -0.052570 0.638715
-0.037553 -0.052574 0.639342
-0.037429 -0.052533 0.640136
-0.037232 -0.052715 0.640669
-0.037109 -0.052816 0.641923
-0.036829 -0.052621 0.640231
-0.036573 -0.052809 0.640001
-0.036347 -0.052801 0.639575
-0.036308 -0.052646 0.641158
-0.036113 -0.053015 0.642301
-0.035799 -0.052852 0.640223
-0.035675 -0.053023 0.641716
-0.035589 -0.053039 0.643243
-0.035386 -0.052802 0.642407
-0.035099 -0.052861 0.641355
-0.034975 -0.052924 0.642532
-0.034969 -0.053034 0.645486
-0.034663 -0.052758 0.643109
-0.034412 -0.052953 0.642976
-0.034276 -0.053219 0.644648
-0.034111 -0.052971 0.644303
-0.033883 -0.053174 0.644511
-0.033763 -0.053201 0.645665
-0.033711 -0.053287 0.647987
-0.033493 -0.053013 0.646812
-0.033235 -0.053167 0.646446
-0.032968 -0.053383 0.646165
-0.032909 -0.053434 0.648306
-0.032694 -0.053414 0.647994
-0.032536 -0.053372 0.648427
-0.032464 -0.053497 0.650673
-0.099617 -0.053642 0.651193
-0.099436 -0.053713 0.651424
-0.099335 -0.053741 0.652056
-0.099088 -0.053711 0.651761
-0.098981 -0.053732 0.652356
-0.098359 -0.053418 0.649470
-0.097988 -0.053404 0.648464
-0.097821 -0.053534 0.648859
-0.097685 -0.053529 0.649240
-0.097467 -0.053432 0.649013
-0.097159 -0.053420 0.648375
-0.096815 -0.053435 0.647558
-0.096665 -0.053409 0.647833
-0.096373 -0.053380 0.647256
-0.096137 -0.053315 0.646961
-0.095889 -0.053362 0.646756
-0.095738 -0.053295 0.646959
-0.095600 -0.053353 0.647426
-0.095258 -0.053313 0.646528
-0.094920 -0.053102 0.645405
-0.094557 -0.053150 0.644505
-0.094261 -0.053100 0.643863
-0.094061 -0.053115 0.643886
-0.094162 -0.053199 0.645828
-0.093800 -0.053150 0.644785
-0.093423 -0.053030 0.643545
-0.093272 -0.052953 0.643735
-0.093081 -0.053061 0.643949
-0.092632 -0.052902 0.642204
-0.092569 -0.053005 0.643192
-0.092445 -0.053196 0.643936
-0.091985 -0.052932 0.641959
-0.091793 -0.052952 0.642037
-0.091641 -0.052906 0.642265
-0.091419 -0.052965 0.642211
-0.091086 -0.052856 0.641226
-0.090826 -0.052901 0.640921
-0.090601 -0.052869 0.640717
-0.090448 -0.052730 0.640800
